367656.500,4769250.500,-25.48
367657.500,4769250.500,-25.38
367658.500,4769250.500,-25.35
367659.500,4769250.500,-25.28
367660.500,4769250.500,-25.12
367661.500,4769250.500,-25.31
367662.500,4769250.500,-25.58
367663.500,4769250.500,-25.62
367664.500,4769250.500,-25.43
367665.500,4769250.500,-25.53
367666.500,4769250.500,-25.57
367667.500,4769250.500,-25.63
367668.500,4769250.500,-25.68
367669.500,4769250.500,-25.72
367670.500,4769250.500,-25.81
367671.500,4769250.500,-25.78
367672.500,4769250.500,-25.76
367673.500,4769250.500,-25.72
367674.500,4769250.500,-25.63
367675.500,4769250.500,-25.54
367676.500,4769250.500,-25.25
367677.500,4769250.500,-25.09
367678.500,4769250.500,-24.98
367679.500,4769250.500,-24.92
367680.500,4769250.500,-24.94
367681.500,4769250.500,-24.98
367682.500,4769250.500,-25.03
367683.500,4769250.500,-25.13
367713.500,4769250.500,-23.37
367714.500,4769250.500,-23.43
367715.500,4769250.500,-23.43
367716.500,4769250.500,-23.43
367717.500,4769250.500,-23.47
367718.500,4769250.500,-23.40
367719.500,4769250.500,-23.35
367720.500,4769250.500,-23.23
367721.500,4769250.500,-23.04
367722.500,4769250.500,-22.88
367723.500,4769250.500,-22.74
367724.500,4769250.500,-22.65
367725.500,4769250.500,-22.58
367726.500,4769250.500,-22.55
367727.500,4769250.500,-22.41
367728.500,4769250.500,-22.29
367729.500,4769250.500,-22.23
367730.500,4769250.500,-22.02
367731.500,4769250.500,-21.93
367732.500,4769250.500,-21.90
367733.500,4769250.500,-21.91
367429.500,4769251.500,-26.17
367430.500,4769251.500,-26.17
367431.500,4769251.500,-26.23
367432.500,4769251.500,-26.26
367433.500,4769251.500,-26.29
367434.500,4769251.500,-26.34
367435.500,4769251.500,-26.38
367436.500,4769251.500,-26.47
367437.500,4769251.500,-26.57
367438.500,4769251.500,-26.72
367439.500,4769251.500,-26.77
367440.500,4769251.500,-26.85
367441.500,4769251.500,-26.99
367442.500,4769251.500,-27.12
367443.500,4769251.500,-27.24
367444.500,4769251.500,-27.33
367445.500,4769251.500,-27.37
367446.500,4769251.500,-27.36
367447.500,4769251.500,-27.38
367448.500,4769251.500,-27.42
367449.500,4769251.500,-27.44
367450.500,4769251.500,-27.44
367451.500,4769251.500,-27.45
367452.500,4769251.500,-27.48
367453.500,4769251.500,-27.47
367454.500,4769251.500,-27.45
367455.500,4769251.500,-27.45
367456.500,4769251.500,-27.45
367457.500,4769251.500,-27.44
367458.500,4769251.500,-27.46
367459.500,4769251.500,-27.46
367460.500,4769251.500,-27.46
367461.500,4769251.500,-27.46
367462.500,4769251.500,-27.46
367463.500,4769251.500,-27.46
367464.500,4769251.500,-27.47
367465.500,4769251.500,-27.48
367466.500,4769251.500,-27.48
367467.500,4769251.500,-27.49
367468.500,4769251.500,-27.49
367469.500,4769251.500,-27.49
367470.500,4769251.500,-27.47
367471.500,4769251.500,-27.46
367472.500,4769251.500,-27.44
367473.500,4769251.500,-27.44
367474.500,4769251.500,-27.45
367475.500,4769251.500,-27.44
367476.500,4769251.500,-27.44
367477.500,4769251.500,-27.43
367478.500,4769251.500,-27.42
367479.500,4769251.500,-27.41
367480.500,4769251.500,-27.39
367481.500,4769251.500,-27.37
367482.500,4769251.500,-27.37
367483.500,4769251.500,-27.37
367484.500,4769251.500,-27.38
367485.500,4769251.500,-27.38
367486.500,4769251.500,-27.37
367487.500,4769251.500,-27.36
367488.500,4769251.500,-27.33
367489.500,4769251.500,-27.33
367490.500,4769251.500,-27.33
367491.500,4769251.500,-27.33
367492.500,4769251.500,-27.31
367493.500,4769251.500,-27.33
367494.500,4769251.500,-27.34
367495.500,4769251.500,-27.32
367496.500,4769251.500,-27.32
367497.500,4769251.500,-27.32
367498.500,4769251.500,-27.29
367499.500,4769251.500,-27.27
367500.500,4769251.500,-27.27
367501.500,4769251.500,-27.24
367502.500,4769251.500,-27.24
367503.500,4769251.500,-27.23
367504.500,4769251.500,-27.22
367505.500,4769251.500,-27.17
367506.500,4769251.500,-27.13
367507.500,4769251.500,-27.12
367508.500,4769251.500,-27.10
367509.500,4769251.500,-27.08
367510.500,4769251.500,-27.07
367511.500,4769251.500,-27.06
367512.500,4769251.500,-27.07
367513.500,4769251.500,-27.06
367514.500,4769251.500,-27.04
367515.500,4769251.500,-27.04
367516.500,4769251.500,-27.02
367517.500,4769251.500,-27.01
367518.500,4769251.500,-26.98
367519.500,4769251.500,-26.99
367520.500,4769251.500,-26.98
367521.500,4769251.500,-26.98
367522.500,4769251.500,-26.96
367523.500,4769251.500,-26.96
367524.500,4769251.500,-26.97
367525.500,4769251.500,-26.94
367526.500,4769251.500,-26.95
367527.500,4769251.500,-26.95
367528.500,4769251.500,-26.98
367529.500,4769251.500,-26.96
367530.500,4769251.500,-26.96
367531.500,4769251.500,-26.96
367532.500,4769251.500,-26.97
367533.500,4769251.500,-26.97
367534.500,4769251.500,-26.97
367535.500,4769251.500,-26.96
367536.500,4769251.500,-26.96
367537.500,4769251.500,-26.96
367538.500,4769251.500,-26.92
367539.500,4769251.500,-26.92
367540.500,4769251.500,-26.92
367541.500,4769251.500,-26.93
367542.500,4769251.500,-26.93
367543.500,4769251.500,-26.94
367544.500,4769251.500,-26.94
367545.500,4769251.500,-26.94
367546.500,4769251.500,-26.92
367547.500,4769251.500,-26.92
367548.500,4769251.500,-26.93
367549.500,4769251.500,-26.95
367550.500,4769251.500,-26.94
367551.500,4769251.500,-26.94
367552.500,4769251.500,-26.96
367553.500,4769251.500,-26.98
367554.500,4769251.500,-27.01
367555.500,4769251.500,-27.02
367556.500,4769251.500,-27.01
367557.500,4769251.500,-27.00
367558.500,4769251.500,-27.01
367559.500,4769251.500,-27.02
367560.500,4769251.500,-27.03
367561.500,4769251.500,-27.04
367562.500,4769251.500,-27.08
367563.500,4769251.500,-27.10
367564.500,4769251.500,-27.08
367565.500,4769251.500,-27.09
367566.500,4769251.500,-27.09
367567.500,4769251.500,-27.11
367568.500,4769251.500,-27.10
367569.500,4769251.500,-27.13
367570.500,4769251.500,-27.14
367571.500,4769251.500,-27.16
367572.500,4769251.500,-27.18
367573.500,4769251.500,-27.19
367574.500,4769251.500,-27.20
367575.500,4769251.500,-27.21
367576.500,4769251.500,-27.21
367577.500,4769251.500,-27.21
367578.500,4769251.500,-27.21
367579.500,4769251.500,-27.23
367580.500,4769251.500,-27.24
367581.500,4769251.500,-27.25
367582.500,4769251.500,-27.26
367583.500,4769251.500,-27.27
367584.500,4769251.500,-27.28
367585.500,4769251.500,-27.28
367586.500,4769251.500,-27.30
367587.500,4769251.500,-27.32
367588.500,4769251.500,-27.33
367589.500,4769251.500,-27.34
367590.500,4769251.500,-27.35
367591.500,4769251.500,-27.35
367592.500,4769251.500,-27.36
367593.500,4769251.500,-27.38
367594.500,4769251.500,-27.40
367595.500,4769251.500,-27.43
367596.500,4769251.500,-27.43
367597.500,4769251.500,-27.44
367598.500,4769251.500,-27.45
367599.500,4769251.500,-27.45
367600.500,4769251.500,-27.48
367601.500,4769251.500,-27.49
367602.500,4769251.500,-27.50
367603.500,4769251.500,-27.52
367604.500,4769251.500,-27.53
367605.500,4769251.500,-27.52
367606.500,4769251.500,-27.51
367607.500,4769251.500,-27.51
367608.500,4769251.500,-27.52
367609.500,4769251.500,-27.57
367610.500,4769251.500,-27.60
367611.500,4769251.500,-27.62
367612.500,4769251.500,-27.63
367613.500,4769251.500,-27.64
367614.500,4769251.500,-27.63
367615.500,4769251.500,-27.63
367616.500,4769251.500,-27.63
367617.500,4769251.500,-27.64
367618.500,4769251.500,-27.62
367619.500,4769251.500,-27.64
367620.500,4769251.500,-27.66
367621.500,4769251.500,-27.69
367622.500,4769251.500,-27.70
367623.500,4769251.500,-27.72
367624.500,4769251.500,-27.72
367625.500,4769251.500,-27.71
367626.500,4769251.500,-27.71
367627.500,4769251.500,-27.71
367628.500,4769251.500,-27.71
367629.500,4769251.500,-27.71
367630.500,4769251.500,-27.71
367631.500,4769251.500,-27.73
367632.500,4769251.500,-27.72
367633.500,4769251.500,-27.73
367634.500,4769251.500,-27.72
367635.500,4769251.500,-27.69
367636.500,4769251.500,-27.72
367637.500,4769251.500,-27.76
367638.500,4769251.500,-27.74
367639.500,4769251.500,-27.67
367640.500,4769251.500,-27.58
367641.500,4769251.500,-27.51
367642.500,4769251.500,-27.42
367643.500,4769251.500,-27.30
367644.500,4769251.500,-27.17
367645.500,4769251.500,-27.02
367646.500,4769251.500,-26.79
367647.500,4769251.500,-26.57
367648.500,4769251.500,-26.37
367649.500,4769251.500,-26.20
367650.500,4769251.500,-26.14
367651.500,4769251.500,-25.96
367652.500,4769251.500,-25.58
367653.500,4769251.500,-25.41
367654.500,4769251.500,-25.44
367655.500,4769251.500,-25.35
367656.500,4769251.500,-25.22
367657.500,4769251.500,-25.13
367658.500,4769251.500,-25.02
367659.500,4769251.500,-24.91
367660.500,4769251.500,-24.80
367661.500,4769251.500,-24.77
367662.500,4769251.500,-24.89
367663.500,4769251.500,-25.12
367664.500,4769251.500,-25.21
367665.500,4769251.500,-25.17
367666.500,4769251.500,-25.33
367667.500,4769251.500,-25.37
367668.500,4769251.500,-25.49
367669.500,4769251.500,-25.51
367670.500,4769251.500,-25.52
367671.500,4769251.500,-25.47
367672.500,4769251.500,-25.43
367673.500,4769251.500,-25.39
367674.500,4769251.500,-25.14
367675.500,4769251.500,-24.88
367676.500,4769251.500,-24.84
367677.500,4769251.500,-24.80
367678.500,4769251.500,-24.68
367679.500,4769251.500,-24.61
367680.500,4769251.500,-24.58
367681.500,4769251.500,-24.53
367682.500,4769251.500,-24.54
367709.500,4769251.500,-23.53
367710.500,4769251.500,-23.33
367711.500,4769251.500,-23.16
367712.500,4769251.500,-23.07
367713.500,4769251.500,-23.24
367714.500,4769251.500,-23.34
367715.500,4769251.500,-23.32
367716.500,4769251.500,-23.33
367717.500,4769251.500,-23.33
367718.500,4769251.500,-23.32
367719.500,4769251.500,-23.24
367720.500,4769251.500,-23.15
367721.500,4769251.500,-22.94
367722.500,4769251.500,-22.73
367723.500,4769251.500,-22.54
367724.500,4769251.500,-22.40
367725.500,4769251.500,-22.37
367726.500,4769251.500,-22.33
367727.500,4769251.500,-22.30
367728.500,4769251.500,-22.21
367729.500,4769251.500,-22.13
367730.500,4769251.500,-21.99
367731.500,4769251.500,-21.89
367732.500,4769251.500,-21.80
367733.500,4769251.500,-21.79
367429.500,4769252.500,-26.19
367430.500,4769252.500,-26.22
367431.500,4769252.500,-26.29
367432.500,4769252.500,-26.31
367433.500,4769252.500,-26.32
367434.500,4769252.500,-26.32
367435.500,4769252.500,-26.38
367436.500,4769252.500,-26.47
367437.500,4769252.500,-26.57
367438.500,4769252.500,-26.67
367439.500,4769252.500,-26.85
367440.500,4769252.500,-26.97
367441.500,4769252.500,-27.09
367442.500,4769252.500,-27.20
367443.500,4769252.500,-27.30
367444.500,4769252.500,-27.36
367445.500,4769252.500,-27.39
367446.500,4769252.500,-27.42
367447.500,4769252.500,-27.43
367448.500,4769252.500,-27.44
367449.500,4769252.500,-27.43
367450.500,4769252.500,-27.45
367451.500,4769252.500,-27.46
367452.500,4769252.500,-27.47
367453.500,4769252.500,-27.46
367454.500,4769252.500,-27.45
367455.500,4769252.500,-27.44
367456.500,4769252.500,-27.44
367457.500,4769252.500,-27.45
367458.500,4769252.500,-27.45
367459.500,4769252.500,-27.45
367460.500,4769252.500,-27.46
367461.500,4769252.500,-27.47
367462.500,4769252.500,-27.48
367463.500,4769252.500,-27.48
367464.500,4769252.500,-27.47
367465.500,4769252.500,-27.47
367466.500,4769252.500,-27.48
367467.500,4769252.500,-27.49
367468.500,4769252.500,-27.47
367469.500,4769252.500,-27.46
367470.500,4769252.500,-27.46
367471.500,4769252.500,-27.44
367472.500,4769252.500,-27.43
367473.500,4769252.500,-27.43
367474.500,4769252.500,-27.43
367475.500,4769252.500,-27.42
367476.500,4769252.500,-27.41
367477.500,4769252.500,-27.38
367478.500,4769252.500,-27.38
367479.500,4769252.500,-27.35
367480.500,4769252.500,-27.33
367481.500,4769252.500,-27.31
367482.500,4769252.500,-27.31
367483.500,4769252.500,-27.35
367484.500,4769252.500,-27.36
367485.500,4769252.500,-27.36
367486.500,4769252.500,-27.35
367487.500,4769252.500,-27.34
367488.500,4769252.500,-27.34
367489.500,4769252.500,-27.34
367490.500,4769252.500,-27.33
367491.500,4769252.500,-27.32
367492.500,4769252.500,-27.33
367493.500,4769252.500,-27.32
367494.500,4769252.500,-27.33
367495.500,4769252.500,-27.32
367496.500,4769252.500,-27.31
367497.500,4769252.500,-27.30
367498.500,4769252.500,-27.29
367499.500,4769252.500,-27.28
367500.500,4769252.500,-27.27
367501.500,4769252.500,-27.27
367502.500,4769252.500,-27.26
367503.500,4769252.500,-27.25
367504.500,4769252.500,-27.24
367505.500,4769252.500,-27.20
367506.500,4769252.500,-27.16
367507.500,4769252.500,-27.15
367508.500,4769252.500,-27.12
367509.500,4769252.500,-27.09
367510.500,4769252.500,-27.07
367511.500,4769252.500,-27.05
367512.500,4769252.500,-27.06
367513.500,4769252.500,-27.02
367514.500,4769252.500,-27.01
367515.500,4769252.500,-27.00
367516.500,4769252.500,-27.01
367517.500,4769252.500,-27.02
367518.500,4769252.500,-27.02
367519.500,4769252.500,-27.00
367520.500,4769252.500,-26.96
367521.500,4769252.500,-26.97
367522.500,4769252.500,-26.96
367523.500,4769252.500,-26.96
367524.500,4769252.500,-26.98
367525.500,4769252.500,-26.95
367526.500,4769252.500,-26.95
367527.500,4769252.500,-26.94
367528.500,4769252.500,-26.97
367529.500,4769252.500,-26.93
367530.500,4769252.500,-26.97
367531.500,4769252.500,-26.98
367532.500,4769252.500,-27.01
367533.500,4769252.500,-26.98
367534.500,4769252.500,-26.97
367535.500,4769252.500,-26.97
367536.500,4769252.500,-26.95
367537.500,4769252.500,-26.98
367538.500,4769252.500,-26.95
367539.500,4769252.500,-26.93
367540.500,4769252.500,-26.91
367541.500,4769252.500,-26.92
367542.500,4769252.500,-26.92
367543.500,4769252.500,-26.95
367544.500,4769252.500,-26.97
367545.500,4769252.500,-26.96
367546.500,4769252.500,-26.96
367547.500,4769252.500,-26.94
367548.500,4769252.500,-26.95
367549.500,4769252.500,-26.90
367550.500,4769252.500,-26.91
367551.500,4769252.500,-26.96
367552.500,4769252.500,-26.97
367553.500,4769252.500,-26.96
367554.500,4769252.500,-26.98
367555.500,4769252.500,-27.00
367556.500,4769252.500,-27.01
367557.500,4769252.500,-27.03
367558.500,4769252.500,-27.02
367559.500,4769252.500,-27.04
367560.500,4769252.500,-27.05
367561.500,4769252.500,-27.07
367562.500,4769252.500,-27.08
367563.500,4769252.500,-27.08
367564.500,4769252.500,-27.09
367565.500,4769252.500,-27.08
367566.500,4769252.500,-27.09
367567.500,4769252.500,-27.11
367568.500,4769252.500,-27.10
367569.500,4769252.500,-27.13
367570.500,4769252.500,-27.14
367571.500,4769252.500,-27.16
367572.500,4769252.500,-27.16
367573.500,4769252.500,-27.18
367574.500,4769252.500,-27.20
367575.500,4769252.500,-27.20
367576.500,4769252.500,-27.20
367577.500,4769252.500,-27.21
367578.500,4769252.500,-27.22
367579.500,4769252.500,-27.23
367580.500,4769252.500,-27.24
367581.500,4769252.500,-27.26
367582.500,4769252.500,-27.27
367583.500,4769252.500,-27.27
367584.500,4769252.500,-27.28
367585.500,4769252.500,-27.29
367586.500,4769252.500,-27.30
367587.500,4769252.500,-27.33
367588.500,4769252.500,-27.34
367589.500,4769252.500,-27.35
367590.500,4769252.500,-27.35
367591.500,4769252.500,-27.35
367592.500,4769252.500,-27.37
367593.500,4769252.500,-27.39
367594.500,4769252.500,-27.40
367595.500,4769252.500,-27.41
367596.500,4769252.500,-27.43
367597.500,4769252.500,-27.45
367598.500,4769252.500,-27.44
367599.500,4769252.500,-27.45
367600.500,4769252.500,-27.47
367601.500,4769252.500,-27.49
367602.500,4769252.500,-27.51
367603.500,4769252.500,-27.52
367604.500,4769252.500,-27.51
367605.500,4769252.500,-27.51
367606.500,4769252.500,-27.51
367607.500,4769252.500,-27.53
367608.500,4769252.500,-27.56
367609.500,4769252.500,-27.57
367610.500,4769252.500,-27.59
367611.500,4769252.500,-27.62
367612.500,4769252.500,-27.61
367613.500,4769252.500,-27.61
367614.500,4769252.500,-27.61
367615.500,4769252.500,-27.62
367616.500,4769252.500,-27.62
367617.500,4769252.500,-27.61
367618.500,4769252.500,-27.61
367619.500,4769252.500,-27.62
367620.500,4769252.500,-27.64
367621.500,4769252.500,-27.66
367622.500,4769252.500,-27.67
367623.500,4769252.500,-27.69
367624.500,4769252.500,-27.70
367625.500,4769252.500,-27.69
367626.500,4769252.500,-27.69
367627.500,4769252.500,-27.70
367628.500,4769252.500,-27.70
367629.500,4769252.500,-27.67
367630.500,4769252.500,-27.68
367631.500,4769252.500,-27.71
367632.500,4769252.500,-27.74
367633.500,4769252.500,-27.72
367634.500,4769252.500,-27.71
367635.500,4769252.500,-27.71
367636.500,4769252.500,-27.71
367637.500,4769252.500,-27.74
367638.500,4769252.500,-27.71
367639.500,4769252.500,-27.64
367640.500,4769252.500,-27.55
367641.500,4769252.500,-27.45
367642.500,4769252.500,-27.37
367643.500,4769252.500,-27.27
367644.500,4769252.500,-27.07
367645.500,4769252.500,-26.84
367646.500,4769252.500,-26.59
367647.500,4769252.500,-26.35
367648.500,4769252.500,-26.12
367649.500,4769252.500,-25.94
367650.500,4769252.500,-25.92
367651.500,4769252.500,-25.71
367652.500,4769252.500,-25.47
367653.500,4769252.500,-25.35
367654.500,4769252.500,-25.25
367655.500,4769252.500,-25.18
367656.500,4769252.500,-25.03
367657.500,4769252.500,-24.93
367658.500,4769252.500,-24.87
367659.500,4769252.500,-24.76
367660.500,4769252.500,-24.71
367661.500,4769252.500,-24.69
367662.500,4769252.500,-24.68
367663.500,4769252.500,-24.72
367664.500,4769252.500,-24.84
367665.500,4769252.500,-24.96
367666.500,4769252.500,-25.08
367667.500,4769252.500,-25.11
367668.500,4769252.500,-25.17
367669.500,4769252.500,-25.25
367670.500,4769252.500,-25.29
367671.500,4769252.500,-25.20
367672.500,4769252.500,-25.09
367673.500,4769252.500,-25.04
367674.500,4769252.500,-24.93
367675.500,4769252.500,-24.79
367676.500,4769252.500,-24.69
367677.500,4769252.500,-24.64
367678.500,4769252.500,-24.55
367679.500,4769252.500,-24.41
367680.500,4769252.500,-24.31
367681.500,4769252.500,-24.34
367682.500,4769252.500,-24.39
367683.500,4769252.500,-24.46
367706.500,4769252.500,-24.20
367707.500,4769252.500,-23.97
367708.500,4769252.500,-23.77
367709.500,4769252.500,-23.48
367710.500,4769252.500,-23.14
367711.500,4769252.500,-22.96
367712.500,4769252.500,-23.00
367713.500,4769252.500,-23.15
367714.500,4769252.500,-23.19
367715.500,4769252.500,-23.21
367716.500,4769252.500,-23.25
367717.500,4769252.500,-23.25
367718.500,4769252.500,-23.21
367719.500,4769252.500,-23.12
367720.500,4769252.500,-22.89
367721.500,4769252.500,-22.62
367722.500,4769252.500,-22.59
367723.500,4769252.500,-22.42
367724.500,4769252.500,-22.31
367725.500,4769252.500,-22.22
367726.500,4769252.500,-22.16
367727.500,4769252.500,-22.13
367728.500,4769252.500,-22.16
367729.500,4769252.500,-22.05
367730.500,4769252.500,-21.91
367731.500,4769252.500,-21.69
367732.500,4769252.500,-21.63
367733.500,4769252.500,-21.69
367429.500,4769253.500,-26.13
367430.500,4769253.500,-26.18
367431.500,4769253.500,-26.22
367432.500,4769253.500,-26.22
367433.500,4769253.500,-26.36
367434.500,4769253.500,-26.44
367435.500,4769253.500,-26.46
367436.500,4769253.500,-26.56
367437.500,4769253.500,-26.65
367438.500,4769253.500,-26.75
367439.500,4769253.500,-26.95
367440.500,4769253.500,-27.07
367441.500,4769253.500,-27.15
367442.500,4769253.500,-27.28
367443.500,4769253.500,-27.36
367444.500,4769253.500,-27.39
367445.500,4769253.500,-27.42
367446.500,4769253.500,-27.43
367447.500,4769253.500,-27.45
367448.500,4769253.500,-27.46
367449.500,4769253.500,-27.43
367450.500,4769253.500,-27.45
367451.500,4769253.500,-27.44
367452.500,4769253.500,-27.44
367453.500,4769253.500,-27.44
367454.500,4769253.500,-27.43
367455.500,4769253.500,-27.42
367456.500,4769253.500,-27.43
367457.500,4769253.500,-27.42
367458.500,4769253.500,-27.44
367459.500,4769253.500,-27.44
367460.500,4769253.500,-27.44
367461.500,4769253.500,-27.45
367462.500,4769253.500,-27.44
367463.500,4769253.500,-27.43
367464.500,4769253.500,-27.43
367465.500,4769253.500,-27.44
367466.500,4769253.500,-27.44
367467.500,4769253.500,-27.44
367468.500,4769253.500,-27.43
367469.500,4769253.500,-27.43
367470.500,4769253.500,-27.42
367471.500,4769253.500,-27.40
367472.500,4769253.500,-27.39
367473.500,4769253.500,-27.40
367474.500,4769253.500,-27.39
367475.500,4769253.500,-27.38
367476.500,4769253.500,-27.37
367477.500,4769253.500,-27.36
367478.500,4769253.500,-27.35
367479.500,4769253.500,-27.32
367480.500,4769253.500,-27.29
367481.500,4769253.500,-27.28
367482.500,4769253.500,-27.27
367483.500,4769253.500,-27.28
367484.500,4769253.500,-27.32
367485.500,4769253.500,-27.36
367486.500,4769253.500,-27.35
367487.500,4769253.500,-27.32
367488.500,4769253.500,-27.31
367489.500,4769253.500,-27.32
367490.500,4769253.500,-27.32
367491.500,4769253.500,-27.32
367492.500,4769253.500,-27.33
367493.500,4769253.500,-27.32
367494.500,4769253.500,-27.32
367495.500,4769253.500,-27.32
367496.500,4769253.500,-27.32
367497.500,4769253.500,-27.30
367498.500,4769253.500,-27.31
367499.500,4769253.500,-27.29
367500.500,4769253.500,-27.28
367501.500,4769253.500,-27.30
367502.500,4769253.500,-27.29
367503.500,4769253.500,-27.26
367504.500,4769253.500,-27.23
367505.500,4769253.500,-27.20
367506.500,4769253.500,-27.18
367507.500,4769253.500,-27.16
367508.500,4769253.500,-27.13
367509.500,4769253.500,-27.10
367510.500,4769253.500,-27.07
367511.500,4769253.500,-27.04
367512.500,4769253.500,-27.03
367513.500,4769253.500,-27.02
367514.500,4769253.500,-27.01
367515.500,4769253.500,-27.00
367516.500,4769253.500,-27.02
367517.500,4769253.500,-27.05
367518.500,4769253.500,-27.07
367519.500,4769253.500,-27.02
367520.500,4769253.500,-26.99
367521.500,4769253.500,-26.97
367522.500,4769253.500,-26.96
367523.500,4769253.500,-26.97
367524.500,4769253.500,-26.96
367525.500,4769253.500,-26.96
367526.500,4769253.500,-26.96
367527.500,4769253.500,-26.97
367528.500,4769253.500,-26.98
367529.500,4769253.500,-26.96
367530.500,4769253.500,-26.99
367531.500,4769253.500,-26.97
367532.500,4769253.500,-26.99
367533.500,4769253.500,-26.98
367534.500,4769253.500,-26.99
367535.500,4769253.500,-26.98
367536.500,4769253.500,-26.97
367537.500,4769253.500,-26.99
367538.500,4769253.500,-26.97
367539.500,4769253.500,-26.96
367540.500,4769253.500,-26.92
367541.500,4769253.500,-26.91
367542.500,4769253.500,-26.93
367543.500,4769253.500,-26.96
367544.500,4769253.500,-26.96
367545.500,4769253.500,-26.95
367546.500,4769253.500,-26.93
367547.500,4769253.500,-26.90
367548.500,4769253.500,-26.94
367549.500,4769253.500,-26.94
367550.500,4769253.500,-26.94
367551.500,4769253.500,-26.96
367552.500,4769253.500,-26.95
367553.500,4769253.500,-26.98
367554.500,4769253.500,-27.01
367555.500,4769253.500,-27.01
367556.500,4769253.500,-27.02
367557.500,4769253.500,-27.04
367558.500,4769253.500,-27.04
367559.500,4769253.500,-27.04
367560.500,4769253.500,-27.03
367561.500,4769253.500,-27.06
367562.500,4769253.500,-27.08
367563.500,4769253.500,-27.09
367564.500,4769253.500,-27.11
367565.500,4769253.500,-27.08
367566.500,4769253.500,-27.10
367567.500,4769253.500,-27.10
367568.500,4769253.500,-27.12
367569.500,4769253.500,-27.15
367570.500,4769253.500,-27.16
367571.500,4769253.500,-27.16
367572.500,4769253.500,-27.16
367573.500,4769253.500,-27.18
367574.500,4769253.500,-27.18
367575.500,4769253.500,-27.20
367576.500,4769253.500,-27.21
367577.500,4769253.500,-27.21
367578.500,4769253.500,-27.23
367579.500,4769253.500,-27.25
367580.500,4769253.500,-27.25
367581.500,4769253.500,-27.26
367582.500,4769253.500,-27.28
367583.500,4769253.500,-27.27
367584.500,4769253.500,-27.29
367585.500,4769253.500,-27.29
367586.500,4769253.500,-27.31
367587.500,4769253.500,-27.34
367588.500,4769253.500,-27.33
367589.500,4769253.500,-27.34
367590.500,4769253.500,-27.36
367591.500,4769253.500,-27.36
367592.500,4769253.500,-27.37
367593.500,4769253.500,-27.37
367594.500,4769253.500,-27.38
367595.500,4769253.500,-27.40
367596.500,4769253.500,-27.42
367597.500,4769253.500,-27.45
367598.500,4769253.500,-27.44
367599.500,4769253.500,-27.46
367600.500,4769253.500,-27.49
367601.500,4769253.500,-27.50
367602.500,4769253.500,-27.50
367603.500,4769253.500,-27.50
367604.500,4769253.500,-27.50
367605.500,4769253.500,-27.52
367606.500,4769253.500,-27.54
367607.500,4769253.500,-27.56
367608.500,4769253.500,-27.57
367609.500,4769253.500,-27.57
367610.500,4769253.500,-27.60
367611.500,4769253.500,-27.60
367612.500,4769253.500,-27.61
367613.500,4769253.500,-27.61
367614.500,4769253.500,-27.61
367615.500,4769253.500,-27.56
367616.500,4769253.500,-27.59
367617.500,4769253.500,-27.60
367618.500,4769253.500,-27.61
367619.500,4769253.500,-27.61
367620.500,4769253.500,-27.64
367621.500,4769253.500,-27.65
367622.500,4769253.500,-27.67
367623.500,4769253.500,-27.68
367624.500,4769253.500,-27.67
367625.500,4769253.500,-27.67
367626.500,4769253.500,-27.69
367627.500,4769253.500,-27.68
367628.500,4769253.500,-27.68
367629.500,4769253.500,-27.68
367630.500,4769253.500,-27.70
367631.500,4769253.500,-27.74
367632.500,4769253.500,-27.75
367633.500,4769253.500,-27.75
367634.500,4769253.500,-27.73
367635.500,4769253.500,-27.70
367636.500,4769253.500,-27.70
367637.500,4769253.500,-27.72
367638.500,4769253.500,-27.71
367639.500,4769253.500,-27.62
367640.500,4769253.500,-27.48
367641.500,4769253.500,-27.44
367642.500,4769253.500,-27.35
367643.500,4769253.500,-27.15
367644.500,4769253.500,-26.96
367645.500,4769253.500,-26.63
367646.500,4769253.500,-26.34
367647.500,4769253.500,-26.13
367648.500,4769253.500,-25.92
367649.500,4769253.500,-25.78
367650.500,4769253.500,-25.71
367651.500,4769253.500,-25.52
367652.500,4769253.500,-25.32
367653.500,4769253.500,-25.15
367654.500,4769253.500,-25.02
367655.500,4769253.500,-24.98
367656.500,4769253.500,-24.93
367657.500,4769253.500,-24.81
367658.500,4769253.500,-24.67
367659.500,4769253.500,-24.55
367660.500,4769253.500,-24.61
367661.500,4769253.500,-24.65
367662.500,4769253.500,-24.66
367663.500,4769253.500,-24.65
367664.500,4769253.500,-24.66
367665.500,4769253.500,-24.79
367666.500,4769253.500,-24.89
367667.500,4769253.500,-24.91
367668.500,4769253.500,-24.95
367669.500,4769253.500,-24.97
367670.500,4769253.500,-24.87
367671.500,4769253.500,-24.79
367672.500,4769253.500,-24.75
367673.500,4769253.500,-24.58
367674.500,4769253.500,-24.47
367675.500,4769253.500,-24.42
367676.500,4769253.500,-24.33
367677.500,4769253.500,-24.33
367678.500,4769253.500,-24.32
367679.500,4769253.500,-24.29
367680.500,4769253.500,-24.24
367681.500,4769253.500,-24.22
367682.500,4769253.500,-24.41
367683.500,4769253.500,-24.43
367703.500,4769253.500,-24.77
367704.500,4769253.500,-24.52
367705.500,4769253.500,-24.34
367706.500,4769253.500,-24.19
367707.500,4769253.500,-24.02
367708.500,4769253.500,-23.56
367709.500,4769253.500,-23.10
367710.500,4769253.500,-22.85
367711.500,4769253.500,-22.81
367712.500,4769253.500,-22.92
367713.500,4769253.500,-23.07
367714.500,4769253.500,-23.09
367715.500,4769253.500,-23.08
367716.500,4769253.500,-23.12
367717.500,4769253.500,-23.12
367718.500,4769253.500,-23.07
367719.500,4769253.500,-22.96
367720.500,4769253.500,-22.72
367721.500,4769253.500,-22.48
367722.500,4769253.500,-22.40
367723.500,4769253.500,-22.30
367724.500,4769253.500,-22.24
367725.500,4769253.500,-22.14
367726.500,4769253.500,-22.00
367727.500,4769253.500,-21.98
367728.500,4769253.500,-22.06
367729.500,4769253.500,-21.97
367730.500,4769253.500,-21.76
367731.500,4769253.500,-21.65
367732.500,4769253.500,-21.59
367733.500,4769253.500,-21.66
367734.500,4769253.500,-21.77
367430.500,4769254.500,-26.09
367431.500,4769254.500,-26.12
367432.500,4769254.500,-26.23
367433.500,4769254.500,-26.43
367434.500,4769254.500,-26.55
367435.500,4769254.500,-26.63
367436.500,4769254.500,-26.72
367437.500,4769254.500,-26.87
367438.500,4769254.500,-26.96
367439.500,4769254.500,-27.11
367440.500,4769254.500,-27.21
367441.500,4769254.500,-27.27
367442.500,4769254.500,-27.37
367443.500,4769254.500,-27.42
367444.500,4769254.500,-27.44
367445.500,4769254.500,-27.43
367446.500,4769254.500,-27.45
367447.500,4769254.500,-27.44
367448.500,4769254.500,-27.43
367449.500,4769254.500,-27.43
367450.500,4769254.500,-27.42
367451.500,4769254.500,-27.41
367452.500,4769254.500,-27.41
367453.500,4769254.500,-27.41
367454.500,4769254.500,-27.41
367455.500,4769254.500,-27.40
367456.500,4769254.500,-27.41
367457.500,4769254.500,-27.42
367458.500,4769254.500,-27.42
367459.500,4769254.500,-27.42
367460.500,4769254.500,-27.41
367461.500,4769254.500,-27.42
367462.500,4769254.500,-27.40
367463.500,4769254.500,-27.40
367464.500,4769254.500,-27.40
367465.500,4769254.500,-27.41
367466.500,4769254.500,-27.42
367467.500,4769254.500,-27.42
367468.500,4769254.500,-27.41
367469.500,4769254.500,-27.40
367470.500,4769254.500,-27.39
367471.500,4769254.500,-27.38
367472.500,4769254.500,-27.37
367473.500,4769254.500,-27.37
367474.500,4769254.500,-27.36
367475.500,4769254.500,-27.34
367476.500,4769254.500,-27.34
367477.500,4769254.500,-27.35
367478.500,4769254.500,-27.34
367479.500,4769254.500,-27.27
367480.500,4769254.500,-27.21
367481.500,4769254.500,-27.22
367482.500,4769254.500,-27.23
367483.500,4769254.500,-27.27
367484.500,4769254.500,-27.34
367485.500,4769254.500,-27.41
367486.500,4769254.500,-27.36
367487.500,4769254.500,-27.30
367488.500,4769254.500,-27.25
367489.500,4769254.500,-27.26
367490.500,4769254.500,-27.27
367491.500,4769254.500,-27.29
367492.500,4769254.500,-27.31
367493.500,4769254.500,-27.31
367494.500,4769254.500,-27.31
367495.500,4769254.500,-27.31
367496.500,4769254.500,-27.32
367497.500,4769254.500,-27.30
367498.500,4769254.500,-27.30
367499.500,4769254.500,-27.29
367500.500,4769254.500,-27.28
367501.500,4769254.500,-27.28
367502.500,4769254.500,-27.26
367503.500,4769254.500,-27.24
367504.500,4769254.500,-27.21
367505.500,4769254.500,-27.17
367506.500,4769254.500,-27.15
367507.500,4769254.500,-27.13
367508.500,4769254.500,-27.13
367509.500,4769254.500,-27.09
367510.500,4769254.500,-27.05
367511.500,4769254.500,-27.04
367512.500,4769254.500,-27.04
367513.500,4769254.500,-27.01
367514.500,4769254.500,-27.01
367515.500,4769254.500,-27.01
367516.500,4769254.500,-27.02
367517.500,4769254.500,-27.05
367518.500,4769254.500,-27.00
367519.500,4769254.500,-27.01
367520.500,4769254.500,-27.00
367521.500,4769254.500,-26.99
367522.500,4769254.500,-26.95
367523.500,4769254.500,-26.97
367524.500,4769254.500,-26.97
367525.500,4769254.500,-26.99
367526.500,4769254.500,-26.97
367527.500,4769254.500,-26.98
367528.500,4769254.500,-26.97
367529.500,4769254.500,-26.98
367530.500,4769254.500,-26.98
367531.500,4769254.500,-26.97
367532.500,4769254.500,-26.99
367533.500,4769254.500,-26.96
367534.500,4769254.500,-26.98
367535.500,4769254.500,-26.96
367536.500,4769254.500,-26.98
367537.500,4769254.500,-26.99
367538.500,4769254.500,-26.99
367539.500,4769254.500,-27.01
367540.500,4769254.500,-26.95
367541.500,4769254.500,-26.92
367542.500,4769254.500,-26.93
367543.500,4769254.500,-26.94
367544.500,4769254.500,-26.93
367545.500,4769254.500,-26.91
367546.500,4769254.500,-26.94
367547.500,4769254.500,-26.94
367548.500,4769254.500,-26.98
367549.500,4769254.500,-26.94
367550.500,4769254.500,-26.95
367551.500,4769254.500,-26.97
367552.500,4769254.500,-27.00
367553.500,4769254.500,-27.01
367554.500,4769254.500,-27.02
367555.500,4769254.500,-26.98
367556.500,4769254.500,-27.02
367557.500,4769254.500,-27.05
367558.500,4769254.500,-27.05
367559.500,4769254.500,-27.03
367560.500,4769254.500,-27.03
367561.500,4769254.500,-27.09
367562.500,4769254.500,-27.10
367563.500,4769254.500,-27.12
367564.500,4769254.500,-27.12
367565.500,4769254.500,-27.11
367566.500,4769254.500,-27.10
367567.500,4769254.500,-27.12
367568.500,4769254.500,-27.15
367569.500,4769254.500,-27.15
367570.500,4769254.500,-27.15
367571.500,4769254.500,-27.16
367572.500,4769254.500,-27.15
367573.500,4769254.500,-27.18
367574.500,4769254.500,-27.18
367575.500,4769254.500,-27.21
367576.500,4769254.500,-27.21
367577.500,4769254.500,-27.22
367578.500,4769254.500,-27.24
367579.500,4769254.500,-27.27
367580.500,4769254.500,-27.26
367581.500,4769254.500,-27.26
367582.500,4769254.500,-27.28
367583.500,4769254.500,-27.27
367584.500,4769254.500,-27.28
367585.500,4769254.500,-27.29
367586.500,4769254.500,-27.31
367587.500,4769254.500,-27.33
367588.500,4769254.500,-27.33
367589.500,4769254.500,-27.34
367590.500,4769254.500,-27.35
367591.500,4769254.500,-27.36
367592.500,4769254.500,-27.37
367593.500,4769254.500,-27.38
367594.500,4769254.500,-27.40
367595.500,4769254.500,-27.41
367596.500,4769254.500,-27.41
367597.500,4769254.500,-27.42
367598.500,4769254.500,-27.44
367599.500,4769254.500,-27.46
367600.500,4769254.500,-27.46
367601.500,4769254.500,-27.47
367602.500,4769254.500,-27.48
367603.500,4769254.500,-27.52
367604.500,4769254.500,-27.52
367605.500,4769254.500,-27.51
367606.500,4769254.500,-27.55
367607.500,4769254.500,-27.57
367608.500,4769254.500,-27.58
367609.500,4769254.500,-27.58
367610.500,4769254.500,-27.56
367611.500,4769254.500,-27.57
367612.500,4769254.500,-27.58
367613.500,4769254.500,-27.56
367614.500,4769254.500,-27.54
367615.500,4769254.500,-27.55
367616.500,4769254.500,-27.60
367617.500,4769254.500,-27.62
367618.500,4769254.500,-27.64
367619.500,4769254.500,-27.67
367620.500,4769254.500,-27.65
367621.500,4769254.500,-27.66
367622.500,4769254.500,-27.69
367623.500,4769254.500,-27.68
367624.500,4769254.500,-27.67
367625.500,4769254.500,-27.69
367626.500,4769254.500,-27.68
367627.500,4769254.500,-27.67
367628.500,4769254.500,-27.70
367629.500,4769254.500,-27.71
367630.500,4769254.500,-27.74
367631.500,4769254.500,-27.74
367632.500,4769254.500,-27.74
367633.500,4769254.500,-27.72
367634.500,4769254.500,-27.73
367635.500,4769254.500,-27.70
367636.500,4769254.500,-27.70
367637.500,4769254.500,-27.71
367638.500,4769254.500,-27.73
367639.500,4769254.500,-27.62
367640.500,4769254.500,-27.52
367641.500,4769254.500,-27.44
367642.500,4769254.500,-27.35
367643.500,4769254.500,-27.09
367644.500,4769254.500,-26.82
367645.500,4769254.500,-26.53
367646.500,4769254.500,-26.24
367647.500,4769254.500,-25.97
367648.500,4769254.500,-25.73
367649.500,4769254.500,-25.57
367650.500,4769254.500,-25.52
367651.500,4769254.500,-25.40
367652.500,4769254.500,-25.23
367653.500,4769254.500,-25.05
367654.500,4769254.500,-24.89
367655.500,4769254.500,-24.84
367656.500,4769254.500,-24.75
367657.500,4769254.500,-24.68
367658.500,4769254.500,-24.58
367659.500,4769254.500,-24.50
367660.500,4769254.500,-24.54
367661.500,4769254.500,-24.55
367662.500,4769254.500,-24.59
367663.500,4769254.500,-24.58
367664.500,4769254.500,-24.63
367665.500,4769254.500,-24.69
367666.500,4769254.500,-24.73
367667.500,4769254.500,-24.74
367668.500,4769254.500,-24.71
367669.500,4769254.500,-24.73
367670.500,4769254.500,-24.68
367671.500,4769254.500,-24.45
367672.500,4769254.500,-24.29
367673.500,4769254.500,-24.16
367674.500,4769254.500,-24.06
367675.500,4769254.500,-23.96
367676.500,4769254.500,-24.02
367677.500,4769254.500,-24.07
367678.500,4769254.500,-24.10
367679.500,4769254.500,-24.10
367680.500,4769254.500,-24.07
367681.500,4769254.500,-24.19
367682.500,4769254.500,-24.34
367683.500,4769254.500,-24.45
367700.500,4769254.500,-25.09
367701.500,4769254.500,-24.94
367702.500,4769254.500,-24.86
367703.500,4769254.500,-24.86
367704.500,4769254.500,-24.77
367705.500,4769254.500,-24.62
367706.500,4769254.500,-24.40
367707.500,4769254.500,-24.04
367708.500,4769254.500,-23.36
367709.500,4769254.500,-22.92
367710.500,4769254.500,-22.77
367711.500,4769254.500,-22.71
367712.500,4769254.500,-22.83
367713.500,4769254.500,-22.97
367714.500,4769254.500,-22.99
367715.500,4769254.500,-23.03
367716.500,4769254.500,-23.07
367717.500,4769254.500,-23.02
367718.500,4769254.500,-22.95
367719.500,4769254.500,-22.76
367720.500,4769254.500,-22.48
367721.500,4769254.500,-22.32
367722.500,4769254.500,-22.21
367723.500,4769254.500,-22.12
367724.500,4769254.500,-22.09
367725.500,4769254.500,-22.10
367726.500,4769254.500,-21.98
367727.500,4769254.500,-21.88
367728.500,4769254.500,-21.83
367729.500,4769254.500,-21.78
367730.500,4769254.500,-21.71
367731.500,4769254.500,-21.68
367732.500,4769254.500,-21.67
367733.500,4769254.500,-21.61
367734.500,4769254.500,-21.59
367430.500,4769255.500,-26.19
367431.500,4769255.500,-26.17
367432.500,4769255.500,-26.34
367433.500,4769255.500,-26.53
367434.500,4769255.500,-26.66
367435.500,4769255.500,-26.81
367436.500,4769255.500,-26.90
367437.500,4769255.500,-26.99
367438.500,4769255.500,-27.13
367439.500,4769255.500,-27.22
367440.500,4769255.500,-27.27
367441.500,4769255.500,-27.36
367442.500,4769255.500,-27.39
367443.500,4769255.500,-27.42
367444.500,4769255.500,-27.43
367445.500,4769255.500,-27.44
367446.500,4769255.500,-27.45
367447.500,4769255.500,-27.43
367448.500,4769255.500,-27.41
367449.500,4769255.500,-27.40
367450.500,4769255.500,-27.39
367451.500,4769255.500,-27.38
367452.500,4769255.500,-27.39
367453.500,4769255.500,-27.38
367454.500,4769255.500,-27.38
367455.500,4769255.500,-27.39
367456.500,4769255.500,-27.38
367457.500,4769255.500,-27.42
367458.500,4769255.500,-27.39
367459.500,4769255.500,-27.40
367460.500,4769255.500,-27.41
367461.500,4769255.500,-27.40
367462.500,4769255.500,-27.39
367463.500,4769255.500,-27.39
367464.500,4769255.500,-27.40
367465.500,4769255.500,-27.40
367466.500,4769255.500,-27.38
367467.500,4769255.500,-27.39
367468.500,4769255.500,-27.37
367469.500,4769255.500,-27.36
367470.500,4769255.500,-27.36
367471.500,4769255.500,-27.36
367472.500,4769255.500,-27.37
367473.500,4769255.500,-27.34
367474.500,4769255.500,-27.32
367475.500,4769255.500,-27.32
367476.500,4769255.500,-27.32
367477.500,4769255.500,-27.30
367478.500,4769255.500,-27.28
367479.500,4769255.500,-27.24
367480.500,4769255.500,-27.22
367481.500,4769255.500,-27.20
367482.500,4769255.500,-27.20
367483.500,4769255.500,-27.25
367484.500,4769255.500,-27.34
367485.500,4769255.500,-27.38
367486.500,4769255.500,-27.30
367487.500,4769255.500,-27.28
367488.500,4769255.500,-27.21
367489.500,4769255.500,-27.21
367490.500,4769255.500,-27.20
367491.500,4769255.500,-27.22
367492.500,4769255.500,-27.22
367493.500,4769255.500,-27.23
367494.500,4769255.500,-27.25
367495.500,4769255.500,-27.27
367496.500,4769255.500,-27.28
367497.500,4769255.500,-27.26
367498.500,4769255.500,-27.26
367499.500,4769255.500,-27.26
367500.500,4769255.500,-27.25
367501.500,4769255.500,-27.24
367502.500,4769255.500,-27.23
367503.500,4769255.500,-27.21
367504.500,4769255.500,-27.17
367505.500,4769255.500,-27.14
367506.500,4769255.500,-27.11
367507.500,4769255.500,-27.09
367508.500,4769255.500,-27.07
367509.500,4769255.500,-27.04
367510.500,4769255.500,-27.03
367511.500,4769255.500,-27.02
367512.500,4769255.500,-27.02
367513.500,4769255.500,-27.01
367514.500,4769255.500,-27.00
367515.500,4769255.500,-26.99
367516.500,4769255.500,-27.00
367517.500,4769255.500,-27.01
367518.500,4769255.500,-27.04
367519.500,4769255.500,-27.03
367520.500,4769255.500,-27.01
367521.500,4769255.500,-26.99
367522.500,4769255.500,-26.97
367523.500,4769255.500,-26.97
367524.500,4769255.500,-26.97
367525.500,4769255.500,-26.98
367526.500,4769255.500,-26.96
367527.500,4769255.500,-26.97
367528.500,4769255.500,-26.95
367529.500,4769255.500,-26.98
367530.500,4769255.500,-26.97
367531.500,4769255.500,-26.95
367532.500,4769255.500,-26.96
367533.500,4769255.500,-26.96
367534.500,4769255.500,-26.98
367535.500,4769255.500,-26.98
367536.500,4769255.500,-26.98
367537.500,4769255.500,-27.00
367538.500,4769255.500,-27.00
367539.500,4769255.500,-27.01
367540.500,4769255.500,-26.99
367541.500,4769255.500,-26.95
367542.500,4769255.500,-26.96
367543.500,4769255.500,-26.96
367544.500,4769255.500,-26.96
367545.500,4769255.500,-26.96
367546.500,4769255.500,-26.97
367547.500,4769255.500,-26.96
367548.500,4769255.500,-26.96
367549.500,4769255.500,-26.95
367550.500,4769255.500,-26.98
367551.500,4769255.500,-27.00
367552.500,4769255.500,-27.01
367553.500,4769255.500,-27.02
367554.500,4769255.500,-27.01
367555.500,4769255.500,-26.99
367556.500,4769255.500,-27.03
367557.500,4769255.500,-27.03
367558.500,4769255.500,-27.04
367559.500,4769255.500,-27.05
367560.500,4769255.500,-27.06
367561.500,4769255.500,-27.09
367562.500,4769255.500,-27.11
367563.500,4769255.500,-27.13
367564.500,4769255.500,-27.10
367565.500,4769255.500,-27.14
367566.500,4769255.500,-27.10
367567.500,4769255.500,-27.13
367568.500,4769255.500,-27.13
367569.500,4769255.500,-27.15
367570.500,4769255.500,-27.16
367571.500,4769255.500,-27.15
367572.500,4769255.500,-27.16
367573.500,4769255.500,-27.18
367574.500,4769255.500,-27.19
367575.500,4769255.500,-27.20
367576.500,4769255.500,-27.21
367577.500,4769255.500,-27.22
367578.500,4769255.500,-27.23
367579.500,4769255.500,-27.25
367580.500,4769255.500,-27.27
367581.500,4769255.500,-27.27
367582.500,4769255.500,-27.28
367583.500,4769255.500,-27.28
367584.500,4769255.500,-27.29
367585.500,4769255.500,-27.30
367586.500,4769255.500,-27.32
367587.500,4769255.500,-27.34
367588.500,4769255.500,-27.33
367589.500,4769255.500,-27.35
367590.500,4769255.500,-27.35
367591.500,4769255.500,-27.37
367592.500,4769255.500,-27.38
367593.500,4769255.500,-27.39
367594.500,4769255.500,-27.39
367595.500,4769255.500,-27.40
367596.500,4769255.500,-27.40
367597.500,4769255.500,-27.41
367598.500,4769255.500,-27.43
367599.500,4769255.500,-27.43
367600.500,4769255.500,-27.46
367601.500,4769255.500,-27.50
367602.500,4769255.500,-27.52
367603.500,4769255.500,-27.52
367604.500,4769255.500,-27.51
367605.500,4769255.500,-27.52
367606.500,4769255.500,-27.55
367607.500,4769255.500,-27.55
367608.500,4769255.500,-27.56
367609.500,4769255.500,-27.56
367610.500,4769255.500,-27.54
367611.500,4769255.500,-27.55
367612.500,4769255.500,-27.55
367613.500,4769255.500,-27.56
367614.500,4769255.500,-27.58
367615.500,4769255.500,-27.58
367616.500,4769255.500,-27.62
367617.500,4769255.500,-27.64
367618.500,4769255.500,-27.65
367619.500,4769255.500,-27.67
367620.500,4769255.500,-27.66
367621.500,4769255.500,-27.66
367622.500,4769255.500,-27.68
367623.500,4769255.500,-27.69
367624.500,4769255.500,-27.69
367625.500,4769255.500,-27.70
367626.500,4769255.500,-27.69
367627.500,4769255.500,-27.71
367628.500,4769255.500,-27.72
367629.500,4769255.500,-27.72
367630.500,4769255.500,-27.75
367631.500,4769255.500,-27.73
367632.500,4769255.500,-27.72
367633.500,4769255.500,-27.71
367634.500,4769255.500,-27.71
367635.500,4769255.500,-27.69
367636.500,4769255.500,-27.71
367637.500,4769255.500,-27.70
367638.500,4769255.500,-27.72
367639.500,4769255.500,-27.67
367640.500,4769255.500,-27.57
367641.500,4769255.500,-27.45
367642.500,4769255.500,-27.34
367643.500,4769255.500,-27.00
367644.500,4769255.500,-26.70
367645.500,4769255.500,-26.40
367646.500,4769255.500,-26.16
367647.500,4769255.500,-25.91
367648.500,4769255.500,-25.60
367649.500,4769255.500,-25.46
367650.500,4769255.500,-25.38
367651.500,4769255.500,-25.32
367652.500,4769255.500,-25.14
367653.500,4769255.500,-24.88
367654.500,4769255.500,-24.73
367655.500,4769255.500,-24.61
367656.500,4769255.500,-24.59
367657.500,4769255.500,-24.56
367658.500,4769255.500,-24.49
367659.500,4769255.500,-24.41
367660.500,4769255.500,-24.45
367661.500,4769255.500,-24.43
367662.500,4769255.500,-24.51
367663.500,4769255.500,-24.50
367664.500,4769255.500,-24.52
367665.500,4769255.500,-24.61
367666.500,4769255.500,-24.66
367667.500,4769255.500,-24.67
367668.500,4769255.500,-24.60
367669.500,4769255.500,-24.51
367670.500,4769255.500,-24.43
367671.500,4769255.500,-24.26
367672.500,4769255.500,-23.99
367673.500,4769255.500,-23.71
367674.500,4769255.500,-23.58
367675.500,4769255.500,-23.64
367676.500,4769255.500,-23.71
367677.500,4769255.500,-23.83
367678.500,4769255.500,-23.90
367679.500,4769255.500,-23.87
367680.500,4769255.500,-23.83
367681.500,4769255.500,-24.13
367682.500,4769255.500,-24.31
367683.500,4769255.500,-24.44
367684.500,4769255.500,-24.47
367696.500,4769255.500,-25.32
367697.500,4769255.500,-25.25
367698.500,4769255.500,-25.19
367699.500,4769255.500,-25.19
367700.500,4769255.500,-25.10
367701.500,4769255.500,-25.01
367702.500,4769255.500,-24.98
367703.500,4769255.500,-24.91
367704.500,4769255.500,-24.86
367705.500,4769255.500,-24.73
367706.500,4769255.500,-24.55
367707.500,4769255.500,-24.29
367708.500,4769255.500,-23.90
367709.500,4769255.500,-23.13
367710.500,4769255.500,-22.77
367711.500,4769255.500,-22.65
367712.500,4769255.500,-22.76
367713.500,4769255.500,-22.86
367714.500,4769255.500,-22.91
367715.500,4769255.500,-22.94
367716.500,4769255.500,-22.92
367717.500,4769255.500,-22.90
367718.500,4769255.500,-22.79
367719.500,4769255.500,-22.64
367720.500,4769255.500,-22.35
367721.500,4769255.500,-22.17
367722.500,4769255.500,-22.14
367723.500,4769255.500,-22.04
367724.500,4769255.500,-22.01
367725.500,4769255.500,-21.97
367726.500,4769255.500,-21.95
367727.500,4769255.500,-21.85
367728.500,4769255.500,-21.75
367729.500,4769255.500,-21.69
367730.500,4769255.500,-21.69
367731.500,4769255.500,-21.67
367732.500,4769255.500,-21.70
367733.500,4769255.500,-21.63
367734.500,4769255.500,-21.56
367430.500,4769256.500,-26.29
367431.500,4769256.500,-26.34
367432.500,4769256.500,-26.49
367433.500,4769256.500,-26.68
367434.500,4769256.500,-26.83
367435.500,4769256.500,-26.97
367436.500,4769256.500,-27.08
367437.500,4769256.500,-27.18
367438.500,4769256.500,-27.23
367439.500,4769256.500,-27.28
367440.500,4769256.500,-27.31
367441.500,4769256.500,-27.37
367442.500,4769256.500,-27.41
367443.500,4769256.500,-27.42
367444.500,4769256.500,-27.43
367445.500,4769256.500,-27.42
367446.500,4769256.500,-27.41
367447.500,4769256.500,-27.41
367448.500,4769256.500,-27.43
367449.500,4769256.500,-27.40
367450.500,4769256.500,-27.35
367451.500,4769256.500,-27.35
367452.500,4769256.500,-27.38
367453.500,4769256.500,-27.37
367454.500,4769256.500,-27.38
367455.500,4769256.500,-27.39
367456.500,4769256.500,-27.40
367457.500,4769256.500,-27.40
367458.500,4769256.500,-27.38
367459.500,4769256.500,-27.38
367460.500,4769256.500,-27.37
367461.500,4769256.500,-27.39
367462.500,4769256.500,-27.39
367463.500,4769256.500,-27.38
367464.500,4769256.500,-27.38
367465.500,4769256.500,-27.37
367466.500,4769256.500,-27.38
367467.500,4769256.500,-27.37
367468.500,4769256.500,-27.36
367469.500,4769256.500,-27.36
367470.500,4769256.500,-27.37
367471.500,4769256.500,-27.35
367472.500,4769256.500,-27.32
367473.500,4769256.500,-27.31
367474.500,4769256.500,-27.29
367475.500,4769256.500,-27.29
367476.500,4769256.500,-27.29
367477.500,4769256.500,-27.27
367478.500,4769256.500,-27.25
367479.500,4769256.500,-27.23
367480.500,4769256.500,-27.21
367481.500,4769256.500,-27.19
367482.500,4769256.500,-27.18
367483.500,4769256.500,-27.20
367484.500,4769256.500,-27.24
367485.500,4769256.500,-27.27
367486.500,4769256.500,-27.27
367487.500,4769256.500,-27.23
367488.500,4769256.500,-27.17
367489.500,4769256.500,-27.16
367490.500,4769256.500,-27.15
367491.500,4769256.500,-27.15
367492.500,4769256.500,-27.16
367493.500,4769256.500,-27.17
367494.500,4769256.500,-27.17
367495.500,4769256.500,-27.16
367496.500,4769256.500,-27.19
367497.500,4769256.500,-27.18
367498.500,4769256.500,-27.19
367499.500,4769256.500,-27.18
367500.500,4769256.500,-27.17
367501.500,4769256.500,-27.16
367502.500,4769256.500,-27.16
367503.500,4769256.500,-27.17
367504.500,4769256.500,-27.14
367505.500,4769256.500,-27.10
367506.500,4769256.500,-27.07
367507.500,4769256.500,-27.04
367508.500,4769256.500,-27.02
367509.500,4769256.500,-27.00
367510.500,4769256.500,-27.00
367511.500,4769256.500,-27.00
367512.500,4769256.500,-27.00
367513.500,4769256.500,-27.01
367514.500,4769256.500,-26.99
367515.500,4769256.500,-26.99
367516.500,4769256.500,-27.01
367517.500,4769256.500,-27.02
367518.500,4769256.500,-27.01
367519.500,4769256.500,-27.00
367520.500,4769256.500,-27.00
367521.500,4769256.500,-26.98
367522.500,4769256.500,-27.00
367523.500,4769256.500,-26.97
367524.500,4769256.500,-26.96
367525.500,4769256.500,-26.96
367526.500,4769256.500,-26.95
367527.500,4769256.500,-26.98
367528.500,4769256.500,-26.99
367529.500,4769256.500,-26.98
367530.500,4769256.500,-26.99
367531.500,4769256.500,-26.96
367532.500,4769256.500,-26.95
367533.500,4769256.500,-26.96
367534.500,4769256.500,-26.99
367535.500,4769256.500,-27.01
367536.500,4769256.500,-27.01
367537.500,4769256.500,-27.00
367538.500,4769256.500,-27.01
367539.500,4769256.500,-27.00
367540.500,4769256.500,-27.02
367541.500,4769256.500,-26.98
367542.500,4769256.500,-26.98
367543.500,4769256.500,-27.00
367544.500,4769256.500,-26.96
367545.500,4769256.500,-26.97
367546.500,4769256.500,-26.96
367547.500,4769256.500,-26.98
367548.500,4769256.500,-26.96
